-55.92 -39.172 -708.87
-56.337 -39.153 -708.88
-56.755 -39.142 -708.9
-57.173 -39.142 -708.92
-57.592 -39.147 -708.95
-58.011 -39.152 -708.98
-58.43 -39.157 -709.01
-58.849 -39.154 -709.03
-59.268 -39.14 -709.05
-59.686 -39.122 -709.06
-60.105 -39.108 -709.08
-60.524 -39.093 -709.09
-60.944 -39.083 -709.11
-61.364 -39.08 -709.14
-61.784 -39.077 -709.16
-62.205 -39.075 -709.18
-62.625 -39.075 -709.21
-63.046 -39.07 -709.23
-63.466 -39.062 -709.25
-63.887 -39.056 -709.27
-64.308 -39.041 -709.29
-64.729 -39.027 -709.31
-65.15 -39.012 -709.32
-65.571 -38.997 -709.34
-65.992 -38.98 -709.35
-66.414 -38.966 -709.37
-66.836 -38.959 -709.39
-67.259 -38.952 -709.41
-67.681 -38.949 -709.43
-68.104 -38.951 -709.46
-68.528 -38.952 -709.49
-68.951 -38.949 -709.51
-69.374 -38.943 -709.53
-69.798 -38.937 -709.56
-70.221 -38.929 -709.58
-70.645 -38.922 -709.6
-71.069 -38.918 -709.62
-71.494 -38.916 -709.64
-71.918 -38.914 -709.67
-72.343 -38.913 -709.69
128.17 -40.491 -698.5
127.78 -40.494 -698.52
127.4 -40.494 -698.55
127.01 -40.494 -698.57
126.62 -40.495 -698.6
126.24 -40.502 -698.62
125.85 -40.51 -698.65
125.46 -40.507 -698.67
125.08 -40.505 -698.7
124.69 -40.518 -698.73
124.3 -40.526 -698.76
123.92 -40.532 -698.78
123.53 -40.546 -698.81
123.15 -40.557 -698.85
122.76 -40.553 -698.87
122.37 -40.542 -698.88
121.99 -40.548 -698.91
121.6 -40.542 -698.93
121.21 -40.532 -698.95
120.83 -40.531 -698.97
120.44 -40.539 -699
120.05 -40.542 -699.02
119.67 -40.553 -699.05
119.28 -40.57 -699.09
118.9 -40.579 -699.12
118.51 -40.588 -699.14
118.13 -40.59 -699.17
117.74 -40.588 -699.19
117.35 -40.587 -699.21
116.97 -40.584 -699.24
116.58 -40.577 -699.25
116.19 -40.572 -699.27
115.81 -40.572 -699.3
115.42 -40.575 -699.32
115.03 -40.577 -699.35
114.65 -40.578 -699.37
114.26 -40.579 -699.4
113.88 -40.582 -699.42
113.49 -40.58 -699.44
113.1 -40.585 -699.47
112.72 -40.592 -699.5
112.33 -40.599 -699.53
111.95 -40.599 -699.55
111.56 -40.596 -699.57
111.17 -40.589 -699.59
110.79 -40.582 -699.61
110.4 -40.58 -699.63
110.01 -40.583 -699.66
109.63 -40.593 -699.68
109.24 -40.607 -699.72
108.86 -40.614 -699.75
108.47 -40.608 -699.76
108.08 -40.597 -699.78
107.7 -40.589 -699.8
107.31 -40.581 -699.82
106.92 -40.584 -699.84
106.54 -40.596 -699.87
106.15 -40.622 -699.91
105.77 -40.639 -699.95
105.38 -40.648 -699.98
105 -40.646 -700
104.61 -40.638 -700.02
104.22 -40.617 -700.03
103.83 -40.587 -700.03
103.45 -40.569 -700.04
103.06 -40.553 -700.06
102.67 -40.539 -700.07
101.9 -40.541 -700.12
101.51 -40.544 -700.14
101.13 -40.541 -700.17
100.74 -40.539 -700.19
100.35 -40.538 -700.21
99.969 -40.541 -700.24
99.583 -40.545 -700.26
99.197 -40.55 -700.29
98.811 -40.554 -700.31
98.426 -40.557 -700.34
98.039 -40.556 -700.36
97.653 -40.553 -700.38
97.267 -40.554 -700.41
96.88 -40.554 -700.43
96.494 -40.552 -700.45
96.108 -40.553 -700.48
95.722 -40.552 -700.5
95.335 -40.549 -700.52
94.949 -40.551 -700.54
94.563 -40.555 -700.57
94.177 -40.556 -700.59
93.791 -40.56 -700.62
93.405 -40.562 -700.65
93.019 -40.563 -700.67
92.633 -40.563 -700.69
92.246 -40.563 -700.72
91.86 -40.562 -700.74
91.473 -40.56 -700.76
91.087 -40.556 -700.78
90.7 -40.551 -700.8
90.313 -40.549 -700.82
89.927 -40.551 -700.85
89.541 -40.548 -700.87
89.155 -40.552 -700.9
88.768 -40.556 -700.92
88.382 -40.557 -700.95
87.996 -40.555 -700.97
87.609 -40.552 -700.99
87.222 -40.543 -701.01
86.834 -40.532 -701.02
86.447 -40.523 -701.04
86.06 -40.519 -701.06
85.674 -40.522 -701.09
85.288 -40.531 -701.12
84.903 -40.544 -701.15
84.517 -40.562 -701.18
84.132 -40.579 -701.22
83.747 -40.596 -701.25
83.361 -40.607 -701.28
82.975 -40.62 -701.31
82.589 -40.625 -701.34
82.202 -40.624 -701.36
81.815 -40.614 -701.38
81.427 -40.605 -701.4
81.039 -40.587 -701.41
80.651 -40.57 -701.42
80.263 -40.558 -701.44
79.876 -40.548 -701.45
79.489 -40.542 -701.47
79.102 -40.543 -701.5
78.716 -40.555 -701.53
78.329 -40.563 -701.56
77.945 -40.593 -701.6
77.56 -40.627 -701.64
77.176 -40.673 -701.7
76.792 -40.707 -701.74
76.406 -40.733 -701.78
76.019 -40.731 -701.8
75.631 -40.717 -701.82
75.243 -40.702 -701.83
74.855 -40.693 -701.85
74.468 -40.691 -701.87
74.081 -40.699 -701.9
73.694 -40.702 -701.93
73.307 -40.71 -701.95
72.92 -40.712 -701.98
72.533 -40.714 -702
72.145 -40.712 -702.03
71.758 -40.711 -702.05
71.37 -40.706 -702.07
70.983 -40.712 -702.1
70.595 -40.71 -702.12
70.208 -40.714 -702.14
69.82 -40.717 -702.17
69.433 -40.72 -702.19
69.045 -40.711 -702.21
68.657 -40.708 -702.23
68.269 -40.703 -702.25
67.88 -40.693 -702.27
67.492 -40.686 -702.29
67.104 -40.682 -702.31
66.716 -40.672 -702.33
66.327 -40.661 -702.34
65.939 -40.653 -702.36
65.55 -40.643 -702.38
65.162 -40.635 -702.4
64.774 -40.634 -702.42
64.386 -40.638 -702.45
63.998 -40.645 -702.47
63.611 -40.665 -702.51
63.224 -40.686 -702.55
62.837 -40.702 -702.58
62.449 -40.707 -702.61
62.061 -40.706 -702.63
61.672 -40.696 -702.65
61.283 -40.684 -702.66
60.894 -40.677 -702.68
60.506 -40.682 -702.71
60.118 -40.691 -702.74
59.73 -40.704 -702.77
59.342 -40.711 -702.8
58.953 -40.711 -702.82
58.564 -40.701 -702.84
58.174 -40.687 -702.85
57.785 -40.671 -702.87
57.396 -40.67 -702.89
57.007 -40.674 -702.92
56.619 -40.683 -702.94
56.231 -40.693 -702.98
55.842 -40.706 -703.01
55.453 -40.702 -703.03
55.062 -40.669 -703.03
54.67 -40.617 -703.02
54.279 -40.572 -703.02
53.888 -40.536 -703.02
53.498 -40.511 -703.02
53.108 -40.496 -703.04
52.718 -40.5 -703.06
52.33 -40.511 -703.09
51.941 -40.52 -703.12
51.551 -40.522 -703.15
51.162 -40.52 -703.17
50.772 -40.516 -703.19
50.382 -40.516 -703.21
49.993 -40.52 -703.24
49.604 -40.53 -703.27
49.214 -40.535 -703.3
48.825 -40.542 -703.33
48.435 -40.543 -703.35
48.045 -40.541 -703.37
47.655 -40.533 -703.39
47.264 -40.53 -703.41
46.874 -40.525 -703.43
46.094 -40.526 -703.48
45.704 -40.532 -703.51
45.314 -40.533 -703.53
44.923 -40.531 -703.55
44.533 -40.529 -703.58
44.142 -40.521 -703.59
43.751 -40.51 -703.61
43.36 -40.507 -703.63
42.969 -40.507 -703.66
42.579 -40.509 -703.68
42.188 -40.518 -703.71
41.798 -40.527 -703.74
41.407 -40.532 -703.77
41.016 -40.531 -703.79
40.625 -40.532 -703.81
40.234 -40.527 -703.83
39.842 -40.517 -703.85
39.451 -40.51 -703.87
39.06 -40.508 -703.89
38.668 -40.505 -703.92
38.277 -40.501 -703.94
37.885 -40.5 -703.96
37.494 -40.497 -703.98
37.102 -40.489 -704
36.71 -40.479 -704.02
36.318 -40.472 -704.04
35.926 -40.464 -704.05
35.534 -40.453 -704.07
35.142 -40.446 -704.09
34.749 -40.444 -704.11
34.358 -40.447 -704.14
33.965 -40.447 -704.16
33.573 -40.448 -704.19
33.181 -40.45 -704.21
32.789 -40.456 -704.24
32.397 -40.454 -704.26
32.004 -40.455 -704.29
31.612 -40.46 -704.31
31.219 -40.453 -704.33
30.826 -40.438 -704.35
30.433 -40.424 -704.36
30.04 -40.406 -704.37
29.646 -40.384 -704.38
29.253 -40.378 -704.4
28.86 -40.38 -704.43
28.467 -40.383 -704.45
28.075 -40.404 -704.49
27.682 -40.426 -704.53
27.289 -40.446 -704.57
26.897 -40.471 -704.6
26.504 -40.501 -704.65
26.111 -40.501 -704.67
25.717 -40.501 -704.7
25.323 -40.501 -704.72
24.929 -40.495 -704.74
24.535 -40.49 -704.76
24.142 -40.494 -704.79
23.748 -40.496 -704.81
23.354 -40.499 -704.84
22.96 -40.512 -704.87
22.566 -40.528 -704.9
22.172 -40.542 -704.94
21.778 -40.549 -704.96
21.383 -40.548 -704.99
20.988 -40.537 -705
20.593 -40.523 -705.02
20.198 -40.504 -705.03
19.803 -40.489 -705.05
19.408 -40.475 -705.06
19.013 -40.46 -705.07
18.617 -40.436 -705.08
18.222 -40.414 -705.09
17.826 -40.386 -705.1
17.43 -40.367 -705.11
17.034 -40.351 -705.12
16.639 -40.35 -705.15
16.244 -40.359 -705.18
15.848 -40.372 -705.21
15.453 -40.381 -705.24
15.057 -40.398 -705.27
14.662 -40.409 -705.3
14.266 -40.413 -705.33
13.87 -40.417 -705.36
13.474 -40.411 -705.38
13.077 -40.396 -705.39
12.681 -40.386 -705.41
12.284 -40.375 -705.43
11.887 -40.366 -705.44
11.491 -40.357 -705.46
11.094 -40.345 -705.48
10.697 -40.331 -705.49
10.3 -40.31 -705.5
9.9023 -40.278 -705.51
9.5051 -40.263 -705.52
9.1078 -40.253 -705.54
8.7106 -40.251 -705.56
8.3134 -40.26 -705.59
7.9163 -40.285 -705.63
7.5191 -40.306 -705.67
7.1049 -38.891 -704.79
6.7079 -38.908 -704.82
6.3107 -38.922 -704.86
5.9134 -38.933 -704.89
5.516 -38.942 -704.92
5.1185 -38.955 -704.95
4.7338 -40.298 -705.83
4.3352 -40.263 -705.83
3.9367 -40.252 -705.85
3.5382 -40.242 -705.87
3.1397 -40.251 -705.9
2.7411 -40.254 -705.92
2.3423 -40.253 -705.95
1.9434 -40.244 -705.97
1.5444 -40.239 -705.99
1.1453 -40.232 -706.01
0.74604 -40.223 -706.03
0.34672 -40.214 -706.04
-0.052705 -40.204 -706.06
-0.45221 -40.197 -706.08
-0.85183 -40.187 -706.1
-1.2516 -40.176 -706.12
-1.6514 -40.168 -706.14
-2.0513 -40.159 -706.15
-2.4513 -40.15 -706.17
-2.8514 -40.145 -706.19
-3.2516 -40.143 -706.22
-3.6519 -40.136 -706.24
-4.0523 -40.133 -706.26
-4.4528 -40.129 -706.28
-4.8535 -40.124 -706.3
-5.2542 -40.122 -706.32
-5.655 -40.125 -706.35
-6.056 -40.126 -706.37
-6.4571 -40.127 -706.4
-6.8582 -40.129 -706.43
-7.2595 -40.131 -706.45
-7.6609 -40.128 -706.47
-8.0624 -40.122 -706.49
-8.464 -40.116 -706.51
-8.8657 -40.106 -706.53
-9.2676 -40.096 -706.55
-9.6695 -40.091 -706.57
-10.072 -40.087 -706.59
-10.876 -40.089 -706.64
-11.279 -40.092 -706.67
-11.681 -40.093 -706.69
-12.084 -40.09 -706.72
-12.486 -40.082 -706.74
-12.889 -40.074 -706.75
-13.292 -40.063 -706.77
-13.695 -40.051 -706.79
-14.098 -40.044 -706.81
-14.502 -40.041 -706.83
-14.905 -40.044 -706.86
-15.309 -40.046 -706.88
-15.713 -40.052 -706.91
-16.117 -40.055 -706.94
-16.52 -40.055 -706.96
-16.925 -40.047 -706.98
-17.329 -40.037 -707
-17.733 -40.024 -707.01
-18.137 -40.01 -707.03
-18.542 -39.994 -707.04
-18.946 -39.983 -707.06
-19.351 -39.974 -707.08
-19.756 -39.966 -707.1
-20.161 -39.957 -707.12
-20.566 -39.939 -707.13
-20.971 -39.905 -707.13
-21.375 -39.846 -707.12
-21.78 -39.738 -707.08
-22.183 -39.588 -707
-22.586 -39.348 -706.87
-22.988 -39.091 -706.73
-23.391 -38.877 -706.62
-23.795 -38.726 -706.55
-24.199 -38.598 -706.49
-24.604 -38.533 -706.47
-25.01 -38.484 -706.47
-25.415 -38.456 -706.47
-25.822 -38.444 -706.49
-26.228 -38.444 -706.52
-26.635 -38.451 -706.54
-27.042 -38.462 -706.58
-27.449 -38.467 -706.6
-27.856 -38.486 -706.64
-28.264 -38.539 -706.7
-28.673 -38.601 -706.76
-29.082 -38.666 -706.83
-29.491 -38.754 -706.91
-29.901 -38.851 -707
-30.31 -38.926 -707.07
-30.719 -38.99 -707.14
-31.129 -39.039 -707.19
-31.537 -39.039 -707.22
-31.945 -38.988 -707.21
-32.352 -38.908 -707.18
-32.758 -38.772 -707.12
-33.164 -38.613 -707.04
-33.57 -38.478 -706.98
-33.977 -38.403 -706.96
-34.386 -38.362 -706.96
-34.795 -38.353 -706.97
-35.204 -38.344 -706.99
-35.614 -38.338 -707.01
-36.023 -38.333 -707.04
-36.433 -38.327 -707.06
-36.844 -38.333 -707.09
-37.254 -38.35 -707.12
-37.665 -38.366 -707.16
-38.076 -38.378 -707.19
-38.487 -38.391 -707.22
-38.898 -38.399 -707.25
-39.309 -38.399 -707.28
-39.721 -38.4 -707.3
-40.132 -38.401 -707.33
-40.544 -38.403 -707.35
-40.955 -38.395 -707.37
-41.367 -38.385 -707.39
-41.778 -38.371 -707.41
-42.19 -38.354 -707.42
-42.601 -38.335 -707.44
-43.014 -38.325 -707.45
-43.426 -38.318 -707.47
-43.839 -38.316 -707.5
-44.252 -38.32 -707.52
-44.665 -38.326 -707.55
-45.078 -38.33 -707.58
-45.492 -38.336 -707.61
-45.905 -38.343 -707.64
-46.32 -38.368 -707.68
-46.736 -38.429 -707.75
-47.154 -38.565 -707.86
-47.576 -38.793 -708.03
-48.002 -39.127 -708.27
-48.426 -39.402 -708.47
-48.846 -39.556 -708.59
-49.265 -39.643 -708.68
-49.682 -39.692 -708.73
-50.098 -39.717 -708.77
-50.514 -39.723 -708.8
-50.93 -39.718 -708.82
-51.346 -39.707 -708.84
-51.762 -39.701 -708.86
-52.178 -39.696 -708.89
-52.595 -39.689 -708.91
-53.011 -39.687 -708.93
-53.428 -39.686 -708.95
-53.845 -39.68 -708.98
-54.262 -39.673 -709
-54.679 -39.666 -709.02
-55.097 -39.657 -709.04
-55.514 -39.65 -709.06
-55.932 -39.641 -709.08
-56.35 -39.634 -709.1
-56.768 -39.63 -709.12
-57.186 -39.625 -709.14
-57.604 -39.621 -709.17
-58.023 -39.616 -709.19
-58.442 -39.609 -709.21
-58.86 -39.597 -709.23
-59.279 -39.586 -709.24
-59.698 -39.571 -709.26
-60.117 -39.558 -709.28
-60.537 -39.547 -709.3
-60.957 -39.544 -709.32
-61.377 -39.541 -709.34
-61.797 -39.545 -709.37
-62.218 -39.55 -709.4
-62.639 -39.551 -709.42
-63.06 -39.546 -709.45
-63.481 -39.542 -709.47
-63.902 -39.534 -709.49
-64.323 -39.529 -709.51
-64.744 -39.525 -709.54
-65.166 -39.524 -709.56
-65.588 -39.519 -709.58
-66.01 -39.517 -709.61
-66.432 -39.508 -709.63
-66.854 -39.492 -709.64
-67.276 -39.48 -709.66
-67.699 -39.469 -709.68
-68.121 -39.454 -709.69
-68.544 -39.444 -709.71
-68.967 -39.44 -709.74
-69.391 -39.435 -709.76
-70.238 -39.427 -709.8
-70.662 -39.426 -709.83
-71.087 -39.42 -709.85
-71.511 -39.417 -709.87
101.25 -39.972 -701.04
100.48 -39.969 -701.08
100.1 -40.033 -701.14
99.719 -40.106 -701.21
99.337 -40.157 -701.27
98.955 -40.21 -701.32
98.574 -40.282 -701.39
98.193 -40.349 -701.46
97.812 -40.414 -701.52
97.431 -40.485 -701.59
97.049 -40.543 -701.65
96.665 -40.581 -701.69
96.28 -40.605 -701.73
95.895 -40.619 -701.76
95.508 -40.624 -701.79
95.122 -40.632 -701.82
94.735 -40.636 -701.84
94.348 -40.641 -701.87
93.962 -40.644 -701.89
93.575 -40.65 -701.92
93.188 -40.647 -701.94
92.801 -40.648 -701.96
92.414 -40.648 -701.99
92.027 -40.651 -702.01
91.64 -40.651 -702.03
91.253 -40.659 -702.06
90.867 -40.666 -702.09
90.48 -40.672 -702.12
90.093 -40.671 -702.14
89.705 -40.667 -702.16
89.317 -40.657 -702.18
88.929 -40.639 -702.19
88.54 -40.625 -702.2
88.153 -40.616 -702.22
87.765 -40.608 -702.24
87.377 -40.606 -702.26
86.99 -40.607 -702.28
86.603 -40.608 -702.3
86.216 -40.61 -702.33
85.829 -40.616 -702.36
85.442 -40.621 -702.38
85.055 -40.629 -702.41
84.668 -40.633 -702.43
84.281 -40.635 -702.46
83.894 -40.636 -702.48
83.507 -40.638 -702.51
83.119 -40.64 -702.53
82.346 -40.655 -702.58
81.958 -40.66 -702.61
81.571 -40.664 -702.64
81.184 -40.665 -702.66
80.796 -40.664 -702.68
80.408 -40.659 -702.7
80.021 -40.658 -702.72
79.633 -40.659 -702.75
79.246 -40.663 -702.77
78.858 -40.669 -702.8
78.471 -40.673 -702.82
78.083 -40.673 -702.85
77.695 -40.67 -702.87
77.307 -40.663 -702.89
76.919 -40.655 -702.9
76.531 -40.654 -702.93
76.143 -40.653 -702.95
75.755 -40.656 -702.97
75.368 -40.662 -703
74.98 -40.665 -703.03
74.592 -40.664 -703.05
74.204 -40.664 -703.07
73.816 -40.658 -703.09
73.427 -40.649 -703.11
73.039 -40.643 -703.13
72.65 -40.636 -703.14
72.262 -40.638 -703.17
71.875 -40.654 -703.2
71.489 -40.686 -703.24
71.105 -40.745 -703.3
70.721 -40.821 -703.37
70.338 -40.901 -703.45
69.955 -40.984 -703.52
69.571 -41.059 -703.59
69.186 -41.103 -703.64
68.796 -41.093 -703.66
68.403 -41.016 -703.64
68.005 -40.856 -703.56
67.608 -40.728 -703.5
67.217 -40.687 -703.5
66.829 -40.683 -703.52
66.44 -40.688 -703.54
66.052 -40.698 -703.57
65.664 -40.711 -703.6
65.276 -40.721 -703.63
64.888 -40.732 -703.66
64.5 -40.734 -703.69
64.111 -40.733 -703.71
63.721 -40.72 -703.72
63.331 -40.706 -703.74
62.941 -40.682 -703.75
62.551 -40.66 -703.75
62.161 -40.638 -703.76
61.771 -40.632 -703.78
61.382 -40.625 -703.8
60.993 -40.63 -703.83
60.605 -40.655 -703.87
60.289 -41.977 -704.72
59.891 -41.832 -704.65
59.496 -41.734 -704.61
59.102 -41.65 -704.58
58.706 -41.532 -704.53
58.311 -41.436 -704.5
57.917 -41.342 -704.46
57.522 -41.246 -704.42
57.128 -41.168 -704.4
56.735 -41.097 -704.37
56.341 -41.026 -704.35
55.948 -40.953 -704.33
55.554 -40.88 -704.31
55.161 -40.82 -704.29
54.768 -40.763 -704.28
54.376 -40.71 -704.27
53.984 -40.666 -704.26
53.592 -40.632 -704.26
53.201 -40.604 -704.27
52.81 -40.587 -704.28
52.419 -40.579 -704.3
52.029 -40.575 -704.32
51.639 -40.571 -704.34
51.249 -40.57 -704.36
50.858 -40.572 -704.39
50.468 -40.571 -704.41
50.078 -40.568 -704.43
49.687 -40.571 -704.46
49.297 -40.573 -704.48
48.906 -40.571 -704.5
48.516 -40.572 -704.53
48.125 -40.577 -704.55
47.735 -40.581 -704.58
47.344 -40.583 -704.6
46.954 -40.585 -704.63
46.563 -40.583 -704.65
46.172 -40.578 -704.67
45.78 -40.575 -704.69
45.389 -40.572 -704.71
44.998 -40.575 -704.73
44.607 -40.576 -704.76
44.216 -40.577 -704.78
43.825 -40.573 -704.8
43.434 -40.573 -704.83
43.042 -40.576 -704.85
42.652 -40.595 -704.89
42.262 -40.629 -704.93
41.872 -40.689 -704.99
41.484 -40.776 -705.07
41.096 -40.853 -705.14
40.707 -40.932 -705.21
40.318 -41.011 -705.29
39.928 -41.063 -705.34
39.536 -41.063 -705.37
39.141 -40.988 -705.34
38.743 -40.824 -705.26
38.345 -40.667 -705.19
37.95 -40.605 -705.17
37.558 -40.599 -705.19
37.166 -40.596 -705.21
36.773 -40.587 -705.23
36.38 -40.57 -705.24
35.987 -40.553 -705.25
35.594 -40.533 -705.26
35.201 -40.518 -705.28
34.808 -40.504 -705.29
34.415 -40.495 -705.31
34.022 -40.498 -705.33
33.629 -40.501 -705.36
33.236 -40.501 -705.38
32.843 -40.506 -705.41
32.451 -40.509 -705.43
32.057 -40.5 -705.45
31.664 -40.492 -705.47
31.27 -40.491 -705.49
30.877 -40.487 -705.51
30.483 -40.475 -705.53
30.09 -40.474 -705.55
29.696 -40.466 -705.57
29.302 -40.452 -705.58
28.908 -40.44 -705.6
28.514 -40.44 -705.62
28.12 -40.437 -705.64
27.727 -40.442 -705.67
27.333 -40.457 -705.7
26.94 -40.473 -705.73
26.152 -40.486 -705.79
25.758 -40.492 -705.82
25.363 -40.491 -705.84
24.969 -40.485 -705.86
24.574 -40.483 -705.88
24.18 -40.481 -705.9
23.785 -40.471 -705.92
23.39 -40.459 -705.93
22.995 -40.451 -705.95
22.599 -40.438 -705.97
22.204 -40.425 -705.98
21.809 -40.423 -706.01
21.414 -40.426 -706.03
21.019 -40.433 -706.06
20.624 -40.443 -706.09
20.229 -40.46 -706.12
19.834 -40.467 -706.15
19.438 -40.467 -706.17
19.043 -40.459 -706.19
18.647 -40.446 -706.21
18.25 -40.425 -706.22
17.854 -40.407 -706.23
17.458 -40.392 -706.24
17.062 -40.379 -706.26
16.665 -40.361 -706.27
16.269 -40.344 -706.28
15.872 -40.318 -706.29
15.475 -40.288 -706.29
15.078 -40.256 -706.3
14.681 -40.23 -706.3
14.31 -41.682 -707.24
13.911 -41.604 -707.22
13.513 -41.533 -707.2
13.115 -41.501 -707.2
12.716 -41.399 -707.16
12.315 -41.167 -707.04
11.912 -40.78 -706.81
11.51 -40.489 -706.65
11.111 -40.325 -706.57
10.711 -40.175 -706.5
10.309 -39.879 -706.34
9.9092 -39.682 -706.24
9.5099 -39.547 -706.18
9.1111 -39.451 -706.14
8.7126 -39.374 -706.11
8.3147 -39.354 -706.12
7.918 -39.435 -706.2
7.5242 -39.776 -706.44
7.1315 -40.237 -706.75
6.7342 -40.33 -706.83
6.3359 -40.34 -706.86
5.9373 -40.332 -706.88
5.5386 -40.325 -706.9
5.1398 -40.313 -706.92
4.7408 -40.296 -706.93
4.3419 -40.292 -706.95
3.9428 -40.281 -706.97
3.5436 -40.267 -706.98
3.1443 -40.26 -707
2.745 -40.259 -707.02
2.3456 -40.259 -707.05
1.9462 -40.269 -707.08
1.5466 -40.273 -707.1
1.147 -40.28 -707.13
0.7472 -40.281 -707.16
0.34724 -40.272 -707.17
-0.052848 -40.258 -707.19
-0.45305 -40.24 -707.2
-0.85337 -40.218 -707.21
-1.2538 -40.194 -707.22
-1.6542 -40.178 -707.23
-2.0548 -40.157 -707.24
-2.4555 -40.133 -707.25
-2.8563 -40.111 -707.26
-3.2571 -40.094 -707.27
-3.6581 -40.079 -707.29
-4.0591 -40.068 -707.3
-4.4602 -40.079 -707.34
-4.8614 -40.083 -707.36
-5.2627 -40.089 -707.39
-5.6641 -40.107 -707.42
-6.0657 -40.135 -707.46
-6.4674 -40.151 -707.5
-6.8691 -40.172 -707.54
-7.2711 -40.188 -707.57
-7.6731 -40.162 -707.58
-8.0752 -40.118 -707.57
-8.4774 -40.079 -707.57
-8.8796 -40.039 -707.57
-9.282 -39.992 -707.56
-9.6845 -39.977 -707.58
-10.087 -39.975 -707.6
-10.49 -39.972 -707.62
-10.893 -39.975 -707.65
-11.296 -39.988 -707.68
-11.699 -39.984 -707.7
-12.102 -39.969 -707.72
-12.505 -39.959 -707.73
-12.909 -39.947 -707.75
-13.312 -39.936 -707.77
-13.716 -39.938 -707.79
-14.12 -39.944 -707.82
-14.524 -39.945 -707.84
-14.928 -39.943 -707.87
-15.332 -39.936 -707.88
-15.736 -39.922 -707.9
-16.14 -39.914 -707.92
-16.545 -39.907 -707.94
-16.949 -39.882 -707.95
-17.352 -39.696 -707.85
-17.754 -39.366 -707.67
-18.158 -39.222 -707.6
-18.563 -39.189 -707.6
-18.968 -39.219 -707.65
-19.374 -39.296 -707.72
-19.78 -39.383 -707.8
-20.186 -39.477 -707.88
-20.593 -39.555 -707.95
-21 -39.634 -708.03
-21.406 -39.686 -708.08
-21.812 -39.711 -708.12
-22.219 -39.723 -708.16
-22.625 -39.722 -708.18
-23.032 -39.711 -708.2
-23.438 -39.694 -708.21
-23.844 -39.682 -708.23
-24.251 -39.668 -708.24
-24.658 -39.655 -708.26
-25.065 -39.648 -708.28
-25.472 -39.641 -708.3
-25.879 -39.633 -708.32
-26.287 -39.63 -708.34
-26.694 -39.623 -708.36
-27.102 -39.613 -708.37
-27.51 -39.605 -708.39
-27.918 -39.594 -708.41
-28.325 -39.58 -708.43
-28.734 -39.566 -708.44
-29.142 -39.557 -708.46
-29.55 -39.543 -708.47
-29.959 -39.531 -708.49
-30.367 -39.52 -708.51
-30.776 -39.512 -708.53
-31.594 -39.494 -708.56
-32.003 -39.481 -708.58
-32.412 -39.467 -708.59
-32.821 -39.44 -708.6
-33.23 -39.403 -708.6
-33.64 -39.368 -708.6
-34.049 -39.332 -708.61
-34.458 -39.292 -708.6
-34.868 -39.252 -708.6
-35.277 -39.209 -708.6
-35.686 -39.148 -708.59
-36.095 -39.082 -708.57
-36.504 -39.006 -708.54
-36.913 -38.909 -708.51
-37.322 -38.816 -708.47
-37.731 -38.72 -708.44
-38.139 -38.621 -708.4
-38.548 -38.524 -708.36
-38.958 -38.447 -708.33
-39.368 -38.396 -708.33
-39.78 -38.391 -708.35
-40.193 -38.443 -708.4
-40.607 -38.506 -708.47
-41.013 -38.262 -708.34
-41.46 -39.525 -709.16
-41.874 -39.56 -709.21
-42.287 -39.562 -709.24
-42.7 -39.549 -709.25
-43.113 -39.539 -709.27
-43.526 -39.526 -709.29
-43.939 -39.501 -709.3
-44.352 -39.475 -709.3
-44.766 -39.453 -709.31
-45.179 -39.42 -709.32
-45.592 -39.39 -709.32
-46.006 -39.379 -709.34
-46.421 -39.377 -709.36
-46.836 -39.379 -709.39
-47.251 -39.38 -709.41
-47.665 -39.354 -709.42
132.51 -40.483 -698.7
131.74 -40.503 -698.76
131.35 -40.517 -698.79
130.97 -40.536 -698.82
130.59 -40.581 -698.87
130.21 -40.654 -698.94
129.83 -40.734 -699.01
129.45 -40.825 -699.09
129.08 -40.925 -699.18
128.7 -41.016 -699.26
128.32 -41.075 -699.32
127.93 -41.078 -699.34
127.53 -40.965 -699.3
127.11 -40.698 -699.15
126.71 -40.54 -699.07
126.32 -40.513 -699.08
125.93 -40.509 -699.1
125.54 -40.506 -699.12
125.16 -40.499 -699.14
124.77 -40.493 -699.16
124.38 -40.486 -699.18
123.99 -40.488 -699.2
123.61 -40.496 -699.23
123.22 -40.513 -699.26
122.84 -40.529 -699.29
122.45 -40.55 -699.33
122.07 -40.574 -699.37
121.68 -40.588 -699.4
121.3 -40.593 -699.43
120.91 -40.602 -699.45
120.52 -40.602 -699.48
120.13 -40.592 -699.49
119.75 -40.59 -699.51
119.36 -40.596 -699.54
118.98 -40.604 -699.57
118.59 -40.612 -699.6
118.2 -40.626 -699.63
117.82 -40.636 -699.66
117.43 -40.633 -699.68
117.04 -40.619 -699.69
116.66 -40.611 -699.71
116.27 -40.597 -699.72
115.88 -40.589 -699.74
115.49 -40.592 -699.77
115.11 -40.602 -699.79
114.72 -40.608 -699.82
114.34 -40.615 -699.85
113.95 -40.616 -699.87
113.56 -40.611 -699.89
113.17 -40.608 -699.91
112.79 -40.609 -699.93
112.4 -40.62 -699.96
112.02 -40.63 -699.99
111.63 -40.634 -700.02
111.24 -40.628 -700.04
110.86 -40.613 -700.05
110.47 -40.59 -700.06
110.08 -40.574 -700.07
109.69 -40.569 -700.09
109.31 -40.571 -700.11
108.92 -40.579 -700.14
108.53 -40.586 -700.17
108.15 -40.598 -700.2
107.76 -40.608 -700.23
107.38 -40.608 -700.25
106.99 -40.609 -700.27
106.6 -40.611 -700.3
106.22 -40.611 -700.32
105.83 -40.605 -700.34
105.44 -40.607 -700.36
105.06 -40.605 -700.39
104.67 -40.6 -700.41
104.28 -40.594 -700.42
103.9 -40.6 -700.45
103.51 -40.6 -700.47
103.12 -40.588 -700.49
102.73 -40.52 -700.47
102.34 -40.436 -700.44
101.94 -40.375 -700.42
101.55 -40.341 -700.42
101.17 -40.332 -700.44
100.78 -40.352 -700.48
100.4 -40.363 -700.51
100.01 -40.372 -700.53
99.625 -40.373 -700.56
99.238 -40.359 -700.57
98.848 -40.318 -700.57
98.457 -40.264 -700.56
98.064 -40.188 -700.53
97.671 -40.118 -700.51
97.279 -40.051 -700.49
96.888 -39.991 -700.48
96.497 -39.937 -700.46
96.108 -39.908 -700.47
95.723 -39.918 -700.5
95.342 -39.983 -700.56
94.966 -40.116 -700.67
94.603 -40.387 -700.86
94.233 -40.594 -701.01
93.853 -40.667 -701.08
93.469 -40.697 -701.12
93.083 -40.706 -701.15
92.697 -40.714 -701.18
92.31 -40.716 -701.2
91.923 -40.71 -701.22
91.535 -40.694 -701.23
91.148 -40.684 -701.25
90.76 -40.674 -701.27
90.373 -40.666 -701.29
89.986 -40.662 -701.31
89.599 -40.666 -701.33
89.213 -40.666 -701.35
88.826 -40.662 -701.37
88.438 -40.655 -701.39
88.051 -40.644 -701.41
87.664 -40.639 -701.43
87.276 -40.635 -701.45
86.889 -40.629 -701.47
86.502 -40.628 -701.49
86.116 -40.629 -701.51
85.729 -40.628 -701.53
85.342 -40.627 -701.56
84.955 -40.635 -701.58
84.569 -40.645 -701.61
84.183 -40.657 -701.64
83.797 -40.66 -701.67
83.41 -40.659 -701.69
83.022 -40.658 -701.71
82.635 -40.649 -701.73
82.247 -40.637 -701.74
81.859 -40.626 -701.76
81.472 -40.626 -701.78
81.085 -40.625 -701.8
80.698 -40.627 -701.83
80.311 -40.628 -701.85
79.924 -40.632 -701.88
79.537 -40.635 -701.9
79.15 -40.634 -701.92
78.763 -40.638 -701.95
78.376 -40.648 -701.98
77.99 -40.652 -702
77.602 -40.65 -702.02
77.215 -40.651 -702.05
76.828 -40.655 -702.07
76.053 -40.65 -702.12
75.666 -40.66 -702.14
75.279 -40.66 -702.17
74.89 -40.646 -702.18
74.502 -40.633 -702.2
74.109 -40.551 -702.17
73.707 -40.34 -702.06
73.309 -40.177 -701.98
72.917 -40.11 -701.96
72.529 -40.098 -701.97
72.143 -40.124 -702.01
71.759 -40.18 -702.07
71.376 -40.249 -702.14
70.994 -40.326 -702.21
70.611 -40.397 -702.27
70.227 -40.466 -702.34
69.843 -40.52 -702.4
69.457 -40.553 -702.44
69.071 -40.575 -702.48
68.684 -40.588 -702.51
68.296 -40.596 -702.54
67.908 -40.597 -702.56
67.52 -40.598 -702.58
67.132 -40.596 -702.6
66.743 -40.586 -702.62
66.354 -40.572 -702.63
65.965 -40.558 -702.65
65.576 -40.541 -702.66
65.187 -40.523 -702.67
64.798 -40.509 -702.69
64.409 -40.503 -702.71
64.021 -40.498 -702.72
63.632 -40.497 -702.75
63.245 -40.506 -702.78
62.857 -40.514 -702.8
62.469 -40.521 -702.83
62.081 -40.529 -702.86
61.692 -40.534 -702.88
61.304 -40.534 -702.91
60.915 -40.536 -702.93
60.526 -40.533 -702.95
60.138 -40.531 -702.97
59.749 -40.536 -703
59.361 -40.543 -703.03
58.973 -40.554 -703.06
58.585 -40.572 -703.09
58.197 -40.59 -703.12
57.808 -40.601 -703.15
57.42 -40.612 -703.18
57.031 -40.61 -703.21
56.641 -40.599 -703.22
56.251 -40.58 -703.23
55.86 -40.555 -703.24
55.469 -40.519 -703.24
55.078 -40.48 -703.24
54.687 -40.44 -703.24
54.296 -40.404 -703.24
53.905 -40.367 -703.23
53.513 -40.328 -703.23
53.121 -40.272 -703.22
52.729 -40.211 -703.2
52.336 -40.149 -703.19
51.943 -40.073 -703.16
51.549 -39.983 -703.13
51.156 -39.901 -703.1
50.763 -39.843 -703.09
50.372 -39.81 -703.09
49.984 -39.842 -703.13
49.6 -39.958 -703.23
49.228 -40.358 -703.5
48.85 -40.612 -703.69
48.464 -40.699 -703.76
48.075 -40.733 -703.81
47.685 -40.74 -703.84
47.294 -40.729 -703.85
46.903 -40.71 -703.86
46.512 -40.684 -703.87
46.12 -40.66 -703.88
45.729 -40.649 -703.89
45.338 -40.648 -703.92
44.947 -40.634 -703.93
44.553 -40.546 -703.9
44.156 -40.391 -703.82
43.758 -40.236 -703.75
43.364 -40.147 -703.71
42.973 -40.131 -703.73
42.583 -40.164 -703.77
42.194 -40.211 -703.82
41.806 -40.278 -703.89
41.418 -40.354 -703.96
41.03 -40.426 -704.03
40.641 -40.488 -704.09
40.251 -40.529 -704.14
39.861 -40.548 -704.17
39.469 -40.551 -704.2
39.078 -40.543 -704.22
38.686 -40.529 -704.23
38.293 -40.515 -704.24
37.902 -40.508 -704.26
37.51 -40.502 -704.28
37.118 -40.5 -704.3
36.726 -40.5 -704.33
36.334 -40.505 -704.35
35.943 -40.512 -704.38
35.551 -40.524 -704.41
35.159 -40.534 -704.44
34.767 -40.543 -704.47
34.375 -40.55 -704.5
33.983 -40.549 -704.52
33.59 -40.542 -704.54
33.198 -40.535 -704.56
32.805 -40.533 -704.58
32.412 -40.526 -704.6
32.02 -40.526 -704.62
31.627 -40.528 -704.64
31.234 -40.523 -704.66
30.841 -40.517 -704.68
30.448 -40.509 -704.7
30.054 -40.496 -704.72
29.661 -40.484 -704.73
29.268 -40.481 -704.75
28.875 -40.476 -704.77
28.481 -40.474 -704.79
28.088 -40.472 -704.82
27.694 -40.468 -704.84
27.301 -40.46 -704.85
26.907 -40.452 -704.87
26.513 -40.444 -704.89
26.119 -40.44 -704.91
25.725 -40.44 -704.93
25.332 -40.439 -704.96
24.938 -40.447 -704.98
24.544 -40.454 -705.01
24.15 -40.459 -705.04
23.756 -40.46 -705.06
23.362 -40.463 -705.09
22.967 -40.452 -705.1
22.573 -40.447 -705.12
22.178 -40.438 -705.14
21.783 -40.429 -705.16
21.388 -40.418 -705.17
20.994 -40.414 -705.19
20.598 -40.403 -705.21
19.808 -40.387 -705.25
19.413 -40.378 -705.26
19.018 -40.366 -705.28
18.622 -40.357 -705.3
18.227 -40.345 -705.31
17.831 -40.341 -705.33
17.436 -40.332 -705.35
17.04 -40.323 -705.37
16.644 -40.314 -705.39
16.249 -40.305 -705.4
15.853 -40.291 -705.42
15.457 -40.287 -705.44
15.061 -40.298 -705.47
14.665 -40.323 -705.51
14.27 -40.374 -705.56
13.875 -40.448 -705.63
13.481 -40.539 -705.71
13.085 -40.617 -705.79
12.69 -40.698 -705.86
12.295 -40.788 -705.94
11.899 -40.849 -706
11.502 -40.872 -706.04
11.104 -40.806 -706.02
10.702 -40.461 -705.83
10.303 -40.285 -705.74
9.905 -40.223 -705.72
9.5075 -40.203 -705.73
9.1294 -41.659 -706.68
8.7306 -41.579 -706.65
8.3314 -41.474 -706.61
7.9319 -41.34 -706.55
7.5329 -41.26 -706.52
7.134 -41.183 -706.49
6.7348 -41.085 -706.46
6.3357 -41 -706.43
5.9364 -40.906 -706.39
5.5371 -40.804 -706.35
5.1378 -40.71 -706.31
4.7385 -40.629 -706.28
4.3394 -40.562 -706.27
3.9402 -40.5 -706.25
3.541 -40.433 -706.23
3.1418 -40.378 -706.22
2.7425 -40.32 -706.21
2.3431 -40.259 -706.19
1.9436 -40.199 -706.18
1.5442 -40.153 -706.17
1.1448 -40.116 -706.17
0.74536 -40.089 -706.18
0.3459 -40.072 -706.19
-0.053623 -40.06 -706.2
-0.45321 -40.053 -706.22
-0.85291 -40.045 -706.24
-1.2527 -40.042 -706.26
-1.6526 -40.039 -706.28
-2.0525 -40.037 -706.31
-2.4526 -40.027 -706.32
-2.8528 -40.017 -706.34
-3.2531 -40.008 -706.36
-3.6535 -40.001 -706.38
-4.054 -39.997 -706.4
-4.4546 -39.997 -706.42
-4.8553 -39.994 -706.44
-5.2562 -39.981 -706.46
-5.6571 -39.962 -706.47
-6.0581 -39.943 -706.48
-6.4593 -39.929 -706.5
-6.8605 -39.919 -706.51
-7.2618 -39.916 -706.54
-7.6633 -39.917 -706.56
-8.0648 -39.919 -706.59
-8.4665 -39.919 -706.61
-8.8683 -39.92 -706.63
-9.2702 -39.919 -706.66
-9.6722 -39.918 -706.68
-10.074 -39.918 -706.7
-10.477 -39.909 -706.72
-10.879 -39.896 -706.74
-11.281 -39.885 -706.75
-11.684 -39.873 -706.77
-12.086 -39.859 -706.78
-12.489 -39.851 -706.8
-12.892 -39.849 -706.82
-13.295 -39.842 -706.84
-13.698 -39.835 -706.86
-14.101 -39.828 -706.88
-14.505 -39.824 -706.9
-14.908 -39.828 -706.93
-15.312 -39.84 -706.96
-15.716 -39.876 -707.01
-16.12 -39.943 -707.07
-16.525 -40.026 -707.15
-16.93 -40.112 -707.23
-17.335 -40.176 -707.29
-17.74 -40.234 -707.35
-18.145 -40.271 -707.4
-18.55 -40.263 -707.42
-18.954 -40.198 -707.4
-19.357 -40.06 -707.34
-19.761 -39.91 -707.27
-20.165 -39.86 -707.26
-20.571 -39.85 -707.27
-20.976 -39.861 -707.31
-21.382 -39.87 -707.33
-21.787 -39.866 -707.36
-22.193 -39.857 -707.37
-22.599 -39.841 -707.39
-23.004 -39.82 -707.4
-23.41 -39.8 -707.41
-23.817 -39.814 -707.44
-24.223 -39.831 -707.48
-24.63 -39.846 -707.51
-25.037 -39.855 -707.54
-25.444 -39.86 -707.57
-25.85 -39.842 -707.58
-26.257 -39.821 -707.59
-26.664 -39.794 -707.6
-27.071 -39.762 -707.6
-27.477 -39.71 -707.59
-27.884 -39.674 -707.59
-28.292 -39.671 -707.61
-28.7 -39.682 -707.65
-29.108 -39.699 -707.68
-29.517 -39.73 -707.72
-29.926 -39.758 -707.77
-30.334 -39.776 -707.8
-30.743 -39.795 -707.84
-31.152 -39.809 -707.87
-31.561 -39.809 -707.89
-31.97 -39.802 -707.91
-32.378 -39.772 -707.92
-32.787 -39.739 -707.92
-33.196 -39.709 -707.93
-33.605 -39.676 -707.93
-34.013 -39.626 -707.92
-34.422 -39.598 -707.93
-34.831 -39.55 -707.92
-35.24 -39.505 -707.92
-35.649 -39.468 -707.92
-36.059 -39.444 -707.93
-36.469 -39.407 -707.93
-36.878 -39.377 -707.93
-37.289 -39.351 -707.94
-38.153 -41.037 -709.06
-38.562 -40.931 -709.02
-38.972 -40.865 -709
-39.383 -40.808 -708.99
-39.795 -40.802 -709.01
-40.206 -40.769 -709.01
-40.611 -40.513 -708.87
-41.02 -40.36 -708.8
-41.429 -40.231 -708.74
-41.838 -40.135 -708.7
-42.248 -40.035 -708.66
-42.658 -39.941 -708.63
-43.069 -39.848 -708.59
-43.479 -39.751 -708.56
-44.301 -39.586 -708.5
98.387 -9.1206 -753.28
97.541 -8.9775 -753.24
97.118 -8.9051 -753.21
96.695 -8.834 -753.19
96.273 -8.7671 -753.17
95.85 -8.7031 -753.15
95.428 -8.6383 -753.13
95.007 -8.5893 -753.12
94.587 -8.5536 -753.12
94.168 -8.5203 -753.12
93.749 -8.496 -753.13
93.33 -8.476 -753.14
92.911 -8.4602 -753.15
92.493 -8.4461 -753.16
92.076 -8.4392 -753.18
91.658 -8.4319 -753.19
91.24 -8.4301 -753.21
90.823 -8.4335 -753.24
90.407 -8.4389 -753.26
89.99 -8.443 -753.29
89.573 -8.4531 -753.31
89.156 -8.4602 -753.34
88.739 -8.4651 -753.36
88.322 -8.4691 -753.39
87.905 -8.4723 -753.41
87.488 -8.4711 -753.43
87.07 -8.4657 -753.45
86.652 -8.4615 -753.47
86.235 -8.4693 -753.5
85.82 -8.495 -753.53
85.405 -8.5369 -753.58
84.991 -8.5852 -753.63
84.578 -8.6472 -753.69
84.165 -8.7096 -753.76
83.749 -8.739 -753.8
83.332 -8.7402 -753.82
82.912 -8.7149 -753.82
82.49 -8.6531 -753.81
82.068 -8.5875 -753.79
81.648 -8.5591 -753.79
81.23 -8.5503 -753.81
80.812 -8.5411 -753.82
80.393 -8.5305 -753.84
79.974 -8.514 -753.85
79.555 -8.4948 -753.86
79.137 -8.4855 -753.87
78.719 -8.4826 -753.89
78.3 -8.4775 -753.91
77.882 -8.4758 -753.93
77.464 -8.4706 -753.95
77.046 -8.4667 -753.97
76.627 -8.459 -753.98
76.21 -8.4657 -754.01
75.792 -8.4677 -754.03
75.374 -8.477 -754.06
74.957 -8.4837 -754.09
74.539 -8.4848 -754.11
74.12 -8.479 -754.13
73.702 -8.4805 -754.15
73.284 -8.4785 -754.17
72.866 -8.4825 -754.19
72.447 -8.4805 -754.21
72.029 -8.4811 -754.23
71.61 -8.479 -754.25
71.192 -8.4885 -754.28
70.774 -8.4881 -754.3
70.356 -8.497 -754.33
69.938 -8.5099 -754.36
69.52 -8.512 -754.38
69.101 -8.5012 -754.4
68.682 -8.4951 -754.42
68.262 -8.4791 -754.43
67.842 -8.4627 -754.44
67.423 -8.4591 -754.46
67.005 -8.4606 -754.48
66.586 -8.4617 -754.5
66.168 -8.4705 -754.53
65.749 -8.4771 -754.55
65.33 -8.4789 -754.58
64.911 -8.4765 -754.6
64.492 -8.4667 -754.61
64.072 -8.4526 -754.63
63.652 -8.4381 -754.64
63.232 -8.4197 -754.65
62.812 -8.4141 -754.67
62.393 -8.4197 -754.69
61.975 -8.438 -754.72
61.557 -8.4589 -754.76
61.139 -8.4832 -754.8
60.72 -8.4895 -754.82
60.3 -8.4842 -754.84
59.88 -8.4708 -754.85
59.46 -8.4564 -754.87
59.038 -8.4134 -754.86
58.19 -8.238 -754.79
57.767 -8.1798 -754.78
57.346 -8.1487 -754.78
56.926 -8.1564 -754.81
56.508 -8.1912 -754.85
56.091 -8.2409 -754.9
55.673 -8.2885 -754.95
55.256 -8.3288 -755
54.837 -8.3609 -755.04
54.418 -8.3724 -755.07
53.998 -8.3757 -755.1
53.578 -8.3777 -755.12
53.157 -8.3797 -755.14
52.737 -8.386 -755.17
52.318 -8.3952 -755.19
51.897 -8.3997 -755.22
51.477 -8.3965 -755.24
51.056 -8.3967 -755.26
50.636 -8.3959 -755.28
50.215 -8.3926 -755.3
49.794 -8.3944 -755.32
49.374 -8.3984 -755.35
48.953 -8.3993 -755.37
48.532 -8.3967 -755.39
48.111 -8.3984 -755.41
47.69 -8.3984 -755.43
47.269 -8.3906 -755.45
46.848 -8.3871 -755.47
46.426 -8.3818 -755.49
46.005 -8.3667 -755.5
45.583 -8.3515 -755.51
45.161 -8.3337 -755.52
44.738 -8.3073 -755.53
44.315 -8.2736 -755.53
43.892 -8.2347 -755.53
43.469 -8.1941 -755.52
43.046 -8.1479 -755.51
42.622 -8.0994 -755.5
42.199 -8.0656 -755.51
41.776 -8.0317 -755.51
41.353 -7.9918 -755.5
40.929 -7.9437 -755.49
40.504 -7.8818 -755.48
40.08 -7.8092 -755.45
39.655 -7.7289 -755.42
39.229 -7.6403 -755.39
38.804 -7.5607 -755.36
38.38 -7.5065 -755.35
37.957 -7.4805 -755.35
37.536 -7.521 -755.4
37.098 -7.0929 -755.15
36.666 -6.8206 -755
36.241 -6.7494 -754.98
35.876 -8.3274 -756
35.455 -8.3627 -756.04
35.032 -8.3787 -756.07
34.609 -8.3779 -756.09
34.186 -8.369 -756.11
33.763 -8.3621 -756.13
33.339 -8.3427 -756.14
32.915 -8.3208 -756.14
32.491 -8.3039 -756.16
32.067 -8.2845 -756.17
31.643 -8.2607 -756.17
31.218 -8.2141 -756.16
30.79 -8.0923 -756.11
30.363 -7.9695 -756.05
29.937 -7.9035 -756.03
29.513 -7.8839 -756.04
29.089 -7.8952 -756.07
28.667 -7.9418 -756.12
28.244 -7.9844 -756.17
27.822 -8.0387 -756.23
27.399 -8.0913 -756.28
26.976 -8.1309 -756.33
26.552 -8.1429 -756.36
26.128 -8.1442 -756.38
25.704 -8.1386 -756.4
25.279 -8.1299 -756.42
24.854 -8.1233 -756.43
24.429 -8.1219 -756.45
24.004 -8.1222 -756.48
23.58 -8.1221 -756.5
23.155 -8.1249 -756.52
22.73 -8.1251 -756.54
22.305 -8.1236 -756.57
21.879 -8.1177 -756.58
21.454 -8.1101 -756.6
21.028 -8.0968 -756.61
20.602 -8.0849 -756.63
20.177 -8.0759 -756.64
19.751 -8.0664 -756.66
19.325 -8.0587 -756.68
18.899 -8.0518 -756.69
18.473 -8.044 -756.71
18.047 -8.0323 -756.73
17.62 -8.0201 -756.74
17.194 -8.0101 -756.76
16.768 -8.0048 -756.77
16.342 -8.0046 -756.8
15.915 -8.0091 -756.82
15.489 -8.0167 -756.85
15.063 -8.0212 -756.87
14.636 -8.0218 -756.89
14.209 -8.018 -756.91
13.782 -8.0125 -756.93
13.355 -8.0035 -756.95
12.928 -7.9915 -756.96
12.5 -7.979 -756.98
12.073 -7.9678 -756.99
11.645 -7.957 -757.01
11.218 -7.947 -757.02
10.79 -7.9431 -757.04
10.363 -7.9434 -757.07
9.9352 -7.9455 -757.09
9.5075 -7.9457 -757.11
9.0797 -7.9516 -757.14
8.6518 -7.9553 -757.16
8.2236 -7.9477 -757.18
7.7953 -7.9384 -757.19
7.3669 -7.9282 -757.21
6.9383 -7.9132 -757.22
6.5097 -7.8999 -757.24
6.081 -7.8931 -757.25
5.6523 -7.8897 -757.27
5.2236 -7.8871 -757.29
4.7947 -7.885 -757.31
4.3657 -7.8815 -757.33
3.9366 -7.8797 -757.36
3.5075 -7.8779 -757.38
3.0782 -7.8786 -757.4
2.649 -7.891 -757.43
2.22 -7.922 -757.47
1.7909 -7.962 -757.52
1.3619 -8.0176 -757.58
0.93261 -8.0663 -757.63
0.5032 -8.1123 -757.68
0.073386 -8.1349 -757.72
-0.35679 -8.1347 -757.74
-0.78755 -8.0902 -757.73
-1.219 -7.9839 -757.69
-1.6505 -7.8797 -757.64
-2.0815 -7.8343 -757.64
-2.9432 -7.797 -757.66
-3.3742 -7.7835 -757.67
-3.8052 -7.7722 -757.69
-4.2363 -7.7639 -757.7
-4.6675 -7.7589 -757.72
-5.0989 -7.7549 -757.74
-5.5303 -7.7508 -757.76
-5.9618 -7.7449 -757.78
-6.3934 -7.7473 -757.8
-6.8252 -7.7483 -757.83
-7.257 -7.7549 -757.85
-7.6889 -7.7659 -757.88
-8.121 -7.7642 -757.9
-8.5532 -7.7534 -757.92
-8.9856 -7.7431 -757.93
-9.4181 -7.7244 -757.94
-9.8508 -7.7053 -757.95
-10.283 -7.6927 -757.97
-10.716 -7.6831 -757.98
-11.149 -7.6691 -758
-11.582 -7.6638 -758.02
-12.015 -7.6554 -758.03
-12.449 -7.6482 -758.05
-12.882 -7.6493 -758.07
-13.315 -7.6677 -758.11
-13.749 -7.7299 -758.17
-14.182 -8.7496 -758.84
-14.616 -8.6235 -758.78
-15.05 -8.5138 -758.73
-15.485 -8.4523 -758.72
-15.919 -8.4076 -758.71
-16.354 -8.3665 -758.71
-16.788 -8.3127 -758.7
-17.223 -8.251 -758.68
-17.658 -8.1776 -758.65
-18.093 -8.098 -758.63
-18.528 -8.0193 -758.6
-18.963 -7.9415 -758.57
-19.398 -7.867 -758.55
-19.833 -7.8043 -758.53
-20.269 -7.7459 -758.52
-20.704 -7.6857 -758.5
-21.14 -7.6141 -758.48
-21.575 -7.5556 -758.46
-22.011 -7.5005 -758.45
-22.447 -7.4545 -758.44
-22.883 -7.4084 -758.44
-23.319 -7.3745 -758.44
-23.756 -7.3436 -758.44
-24.192 -7.3205 -758.45
-24.629 -7.2965 -758.45
-25.066 -7.2868 -758.47
-25.503 -7.2919 -758.5
-25.94 -7.3196 -758.54
154.15 -8.5622 -749.25
153.73 -8.5017 -749.23
153.3 -8.454 -749.22
152.88 -8.4225 -749.22
152.46 -8.4136 -749.24
152.04 -8.4299 -749.27
151.63 -8.4701 -749.31
151.21 -8.5192 -749.37
150.8 -8.5717 -749.42
150.39 -8.6101 -749.46
149.97 -8.6255 -749.49
149.55 -8.5895 -749.49
149.12 -8.4976 -749.45
148.69 -8.4095 -749.42
148.27 -8.3807 -749.42
147.84 -8.3626 -749.43
147.43 -8.3555 -749.45
147.01 -8.3515 -749.46
146.59 -8.3388 -749.48
146.17 -8.3236 -749.49
145.75 -8.3216 -749.51
145.33 -8.3115 -749.52
144.91 -8.3013 -749.53
144.49 -8.2966 -749.55
144.07 -8.2881 -749.57
143.65 -8.2805 -749.58
143.23 -8.289 -749.61
142.82 -8.3013 -749.64
142.4 -8.3025 -749.66
141.98 -8.3195 -749.69
141.57 -8.3356 -749.72
141.15 -8.3427 -749.74
140.73 -8.354 -749.77
140.32 -8.3876 -749.81
139.49 -8.4217 -749.88
139.07 -8.4308 -749.9
138.65 -8.436 -749.93
138.23 -8.4353 -749.95
137.82 -8.4482 -749.97
137.4 -8.4666 -750.01
136.99 -8.4875 -750.04
136.57 -8.5067 -750.07
136.15 -8.5152 -750.1
135.73 -8.5088 -750.11
135.31 -8.4861 -750.12
134.89 -8.4677 -750.13
134.47 -8.4483 -750.14
134.06 -8.4341 -750.15
133.64 -8.4241 -750.16
133.22 -8.4239 -750.18
132.8 -8.4216 -750.2
132.38 -8.4231 -750.22
131.97 -8.4254 -750.25
131.55 -8.431 -750.27
131.13 -8.4397 -750.29
130.72 -8.462 -750.33
130.3 -8.48 -750.36
129.89 -8.4975 -750.39
129.47 -8.5129 -750.42
129.06 -8.5158 -750.44
128.64 -8.509 -750.46
128.22 -8.5008 -750.48
127.8 -8.4973 -750.49
127.38 -8.4865 -750.51
126.97 -8.4745 -750.52
126.54 -8.4197 -750.51
126.11 -8.3018 -750.45
125.69 -8.2128 -750.42
125.27 -8.1806 -750.42
124.85 -8.1808 -750.44
124.44 -8.2112 -750.48
124.02 -8.257 -750.53
123.61 -8.3015 -750.57
123.2 -8.3442 -750.62
122.79 -8.3818 -750.67
122.37 -8.4108 -750.7
121.96 -8.4202 -750.73
121.54 -8.421 -750.75
121.12 -8.4167 -750.77
120.7 -8.4171 -750.79
120.29 -8.4161 -750.81
119.87 -8.4186 -750.83
119.45 -8.421 -750.85
119.04 -8.4251 -750.88
118.62 -8.4215 -750.89
118.2 -8.4204 -750.91
117.79 -8.4193 -750.93
117.37 -8.4186 -750.95
116.95 -8.4158 -750.97
116.54 -8.4172 -750.99
116.12 -8.4168 -751.01
115.7 -8.4148 -751.03
115.29 -8.4144 -751.05
114.87 -8.4153 -751.07
114.45 -8.4174 -751.1
114.04 -8.4186 -751.12
113.62 -8.4199 -751.14
113.2 -8.4193 -751.16
112.79 -8.4197 -751.18
112.37 -8.414 -751.19
111.95 -8.4104 -751.21
111.54 -8.4081 -751.23
111.12 -8.41 -751.25
110.7 -8.4137 -751.28
110.29 -8.4228 -751.3
109.87 -8.4315 -751.33
109.46 -8.441 -751.35
109.04 -8.4411 -751.37
108.62 -8.4412 -751.39
108.21 -8.4387 -751.41
107.79 -8.4327 -751.43
107.37 -8.4272 -751.45
106.96 -8.428 -751.47
106.54 -8.4297 -751.49
106.12 -8.4313 -751.51
105.71 -8.4338 -751.53
105.29 -8.432 -751.55
104.87 -8.4276 -751.57
104.46 -8.4193 -751.58
104.04 -8.4059 -751.6
103.62 -8.3929 -751.61
103.2 -8.3828 -751.62
102.78 -8.3702 -751.63
102.37 -8.3567 -751.65
101.95 -8.3406 -751.66
101.53 -8.3151 -751.66
101.11 -8.2772 -751.66
100.69 -8.2171 -751.64
100.27 -8.1565 -751.62
99.847 -8.1032 -751.61
99.427 -8.0583 -751.6
99.008 -8.0353 -751.61
98.593 -8.0501 -751.64
98.181 -8.1063 -751.69
97.771 -8.1958 -751.77
97.361 -8.2694 -751.84
96.95 -8.3414 -751.9
96.537 -8.3855 -751.95
96.122 -8.4075 -751.98
95.706 -8.4154 -752.01
95.289 -8.4185 -752.03
94.872 -8.4063 -752.04
94.454 -8.3914 -752.05
94.036 -8.3757 -752.07
93.619 -8.3677 -752.08
93.201 -8.3634 -752.1
92.785 -8.3652 -752.12
92.368 -8.3703 -752.14
91.952 -8.3792 -752.17
91.536 -8.3868 -752.19
91.12 -8.3914 -752.22
90.703 -8.3973 -752.24
90.287 -8.4023 -752.27
89.87 -8.4055 -752.29
89.454 -8.4096 -752.31
89.037 -8.4141 -752.33
88.62 -8.4139 -752.35
88.203 -8.4098 -752.37
87.786 -8.4044 -752.39
87.368 -8.3968 -752.4
86.95 -8.3854 -752.42
86.533 -8.3778 -752.43
86.116 -8.3714 -752.45
85.698 -8.3642 -752.47
85.28 -8.3565 -752.48
84.863 -8.3484 -752.5
84.445 -8.3415 -752.51
84.028 -8.3333 -752.53
83.61 -8.329 -752.54
83.193 -8.3284 -752.56
82.776 -8.3308 -752.59
82.359 -8.3362 -752.61
81.943 -8.3459 -752.64
81.526 -8.3559 -752.66
81.11 -8.3629 -752.69
80.693 -8.3729 -752.71
80.276 -8.3846 -752.74
79.443 -8.401 -752.79
79.026 -8.4032 -752.82
78.608 -8.4011 -752.83
78.19 -8.3952 -752.85
77.772 -8.3845 -752.86
77.354 -8.3776 -752.88
76.937 -8.3775 -752.9
76.519 -8.3783 -752.92
76.102 -8.3799 -752.94
75.685 -8.3871 -752.97
75.268 -8.3955 -752.99
74.85 -8.3944 -753.01
74.432 -8.3934 -753.03
74.015 -8.3923 -753.05
73.596 -8.3844 -753.07
73.178 -8.3691 -753.08
72.759 -8.3607 -753.09
72.341 -8.3604 -753.11
71.925 -8.3767 -753.15
71.509 -8.4187 -753.19
71.095 -8.4708 -753.25
70.68 -8.5209 -753.3
70.265 -8.5705 -753.35
69.849 -8.6085 -753.39
69.431 -8.6071 -753.41
69.011 -8.5788 -753.42
68.589 -8.5202 -753.4
68.166 -8.4392 -753.37
67.746 -8.3984 -753.36
67.327 -8.3987 -753.38
66.909 -8.4006 -753.41
66.491 -8.3974 -753.42
66.072 -8.3967 -753.44
65.653 -8.3879 -753.46
65.235 -8.3812 -753.47
64.816 -8.3838 -753.5
64.398 -8.389 -753.52
63.98 -8.4015 -753.55
63.563 -8.4156 -753.58
63.145 -8.4323 -753.61
62.726 -8.4383 -753.63
62.308 -8.4421 -753.66
61.889 -8.4386 -753.67
61.47 -8.4329 -753.69
61.05 -8.4208 -753.7
60.631 -8.4066 -753.72
60.211 -8.3889 -753.72
59.791 -8.378 -753.74
59.372 -8.3649 -753.75
58.952 -8.3591 -753.77
58.533 -8.3554 -753.79
58.114 -8.3569 -753.81
57.695 -8.3587 -753.83
57.276 -8.3712 -753.86
56.858 -8.3824 -753.88
56.439 -8.3944 -753.91
56.02 -8.4025 -753.94
55.6 -8.4004 -753.96
55.18 -8.3871 -753.97
54.76 -8.3665 -753.98
54.339 -8.3429 -753.98
53.919 -8.3256 -753.99
53.498 -8.3148 -754.01
53.079 -8.3159 -754.03
52.659 -8.3222 -754.05
52.24 -8.3228 -754.07
51.82 -8.3204 -754.09
51.4 -8.3168 -754.11
50.979 -8.3083 -754.12
50.559 -8.2973 -754.14
50.139 -8.2974 -754.16
49.719 -8.2992 -754.18
49.298 -8.3001 -754.2
48.878 -8.2967 -754.22
48.458 -8.301 -754.24
48.038 -8.3001 -754.26
47.618 -8.3065 -754.29
47.198 -8.3291 -754.32
46.837 -9.6912 -755.21
46.413 -9.607 -755.17
45.988 -9.5305 -755.14
45.562 -9.4008 -755.08
45.132 -9.2033 -754.98
44.708 -9.137 -754.96
44.282 -9.0197 -754.9
43.856 -8.9028 -754.85
43.429 -8.7575 -754.78
43 -8.5719 -754.68
42.572 -8.3872 -754.58
42.143 -8.2102 -754.49
41.714 -8.0122 -754.39
41.286 -7.836 -754.3
40.858 -7.6641 -754.21
40.432 -7.5548 -754.16
40.008 -7.4921 -754.14
39.587 -7.4882 -754.16
39.14 -6.8335 -753.77
38.77 -8.1592 -754.63
38.352 -8.2581 -754.71
37.932 -8.3064 -754.76
37.511 -8.3242 -754.79
37.089 -8.33 -754.82
36.667 -8.3293 -754.84
36.245 -8.326 -754.85
35.823 -8.3158 -754.87
35.4 -8.3035 -754.88
34.977 -8.2791 -754.89
34.554 -8.2572 -754.89
34.13 -8.2354 -754.9
33.708 -8.2212 -754.91
33.284 -8.2053 -754.92
32.862 -8.2035 -754.94
32.439 -8.2056 -754.96
32.017 -8.208 -754.99
31.594 -8.2096 -755.01
31.171 -8.2185 -755.03
30.748 -8.2218 -755.06
30.325 -8.2233 -755.08
29.902 -8.2222 -755.1
29.479 -8.2211 -755.12
29.055 -8.2113 -755.13
28.632 -8.2102 -755.15
28.209 -8.2146 -755.18
27.786 -8.2228 -755.2
27.363 -8.2383 -755.23
26.939 -8.2513 -755.26
26.516 -8.2517 -755.28
26.091 -8.2341 -755.29
25.667 -8.216 -755.3
25.242 -8.1854 -755.3
24.817 -8.1479 -755.3
24.392 -8.1129 -755.3
23.967 -8.0896 -755.3
23.542 -8.0696 -755.31
23.118 -8.0638 -755.33
22.693 -8.0606 -755.35
22.269 -8.062 -755.37
21.845 -8.0656 -755.39
21.42 -8.058 -755.41
20.995 -8.043 -755.42
20.569 -8.0263 -755.43
20.144 -8.0096 -755.44
19.719 -7.986 -755.45
18.868 -7.9704 -755.48
18.443 -7.9687 -755.5
18.017 -7.966 -755.52
17.592 -7.9676 -755.54
17.166 -7.9481 -755.55
16.74 -7.9049 -755.54
16.312 -7.8299 -755.51
15.885 -7.7582 -755.49
15.458 -7.7149 -755.48
15.032 -7.6983 -755.49
14.607 -7.7092 -755.52
14.181 -7.7372 -755.56
13.756 -7.773 -755.6
13.33 -7.8101 -755.65
12.905 -7.8545 -755.69
12.479 -7.8885 -755.74
12.053 -7.9045 -755.77
11.626 -7.91 -755.79
11.2 -7.9121 -755.81
10.773 -7.9112 -755.83
10.346 -7.9132 -755.86
9.9191 -7.9144 -755.88
9.492 -7.9112 -755.9
9.0647 -7.9028 -755.91
8.6372 -7.8909 -755.93
8.2096 -7.8786 -755.94
7.7819 -7.8659 -755.95
7.3542 -7.857 -755.97
6.9265 -7.8545 -755.99
6.4988 -7.855 -756.01
6.071 -7.8594 -756.03
5.643 -7.8568 -756.05
5.2148 -7.8482 -756.07
4.7865 -7.8344 -756.08
4.358 -7.8192 -756.09
3.9294 -7.8006 -756.1
3.5009 -7.7928 -756.11
3.0723 -7.7901 -756.13
2.6435 -7.783 -756.15
2.2147 -7.7768 -756.17
1.7858 -7.7714 -756.18
1.3568 -7.766 -756.2
0.92764 -7.7588 -756.22
0.49851 -7.7611 -756.24
0.069257 -7.7626 -756.26
-0.36012 -7.7622 -756.28
-0.78966 -7.7567 -756.3
-1.2193 -7.7503 -756.32
-1.6491 -7.7404 -756.33
-2.079 -7.7287 -756.35
-2.509 -7.7213 -756.36
-2.939 -7.7165 -756.38
-3.3692 -7.7108 -756.4
-3.7994 -7.7094 -756.42
-4.2297 -7.7114 -756.44
-4.6602 -7.7057 -756.46
-5.0908 -7.7007 -756.48
-5.5215 -7.7001 -756.5
-5.9523 -7.6959 -756.51
-6.3832 -7.6918 -756.53
-6.8143 -7.6898 -756.55
-7.2454 -7.6856 -756.57
-7.6767 -7.6748 -756.59
-8.1081 -7.6611 -756.6
-8.5396 -7.6451 -756.61
-8.9713 -7.6321 -756.62
-9.403 -7.6221 -756.64
-9.8348 -7.6143 -756.65
-10.267 -7.6021 -756.67
-10.699 -7.5852 -756.68
-11.131 -7.5595 -756.68
-11.563 -7.5312 -756.68
-11.996 -7.5116 -756.69
-12.428 -7.5105 -756.71
-12.861 -7.5301 -756.75
-13.293 -7.5822 -756.8
-13.726 -7.6716 -756.88
-14.159 -7.7709 -756.96
-14.592 -7.8693 -757.05
-15.025 -7.9487 -757.12
-15.459 -7.9843 -757.16
-15.892 -7.977 -757.18
-16.326 -7.9402 -757.18
-16.76 -7.8804 -757.16
-17.194 -7.8162 -757.14
-17.628 -7.7537 -757.12
-18.062 -7.683 -757.1
-18.496 -7.6161 -757.08
-18.93 -7.5613 -757.06
-19.365 -7.5108 -757.05
-19.799 -7.4616 -757.04
-20.234 -7.4202 -757.04
-20.668 -7.3752 -757.03
-21.103 -7.3372 -757.03
-21.538 -7.3008 -757.02
-21.973 -7.2701 -757.03
-22.408 -7.2445 -757.03
-22.844 -7.2302 -757.04
-23.279 -7.2232 -757.06
-23.715 -7.227 -757.08
-24.151 -7.2296 -757.11
-24.587 -7.2325 -757.13
-25.023 -7.2297 -757.15
-25.459 -7.2235 -757.17
-25.895 -7.2155 -757.18
-26.332 -7.2118 -757.2
-26.768 -7.2072 -757.22
-27.205 -7.2017 -757.24
-27.642 -7.1927 -757.25
-28.079 -7.1776 -757.27
-28.516 -7.1612 -757.28
-28.953 -7.1412 -757.28
-29.39 -7.1199 -757.29
-29.827 -7.1008 -757.3
-30.265 -7.0873 -757.31
-30.703 -7.0742 -757.33
-31.141 -7.0667 -757.34
-31.579 -7.0661 -757.37
-32.017 -7.0642 -757.39
-32.455 -7.0645 -757.41
-32.894 -7.0647 -757.43
-33.333 -7.0619 -757.45
-33.771 -7.0551 -757.47
